ply
format ascii 1.0
element vertex 1876
property float x
property float y
property float z
end_header
-11.4585 9.33528 -40.0115
-15.2598 8.88518 -37.9787
12.6479 6.83876 -29.0367
14.192 6.04227 -25.2998
13.226 8.31345 -35.9484
-11.488 9.14877 -39.9091
-11.4297 9.18005 -40.2042
7.11885 9.95488 -44.0194
14.1531 5.90304 -24.9375
-14.7552 8.58996 -38.1439
13.429 6.22689 -27.3657
13.4059 6.23734 -27.518
2.49222 9.03927 -41.7571
12.9357 6.36582 -28.33
12.9908 6.39561 -28.4469
12.9908 6.39704 -28.4441
2.11601 8.98465 -41.8693
12.7817 6.51364 -29.2783
-5.63052 8.90177 -41.6206
12.5233 6.59918 -29.9682
12.509 6.58584 -29.9225
-12.2185 8.38115 -38.9475
14.2817 5.70806 -25.5556
-14.7842 8.23755 -38.0714
13.0795 6.18458 -28.5841
-14.0616 7.93833 -37.571
14.2822 5.61145 -25.6709
7.00327 8.9006 -42.8385
-6.21283 8.32833 -40.7008
-14.1856 7.92675 -38.2148
-14.0954 7.85352 -37.9162
-12.2561 8.33746 -40.5992
1.74061 8.49343 -41.8656
-0.982736 8.24128 -41.089
-1.01762 8.21072 -41.0366
-5.07437 7.94413 -40.4078
15.233 4.82983 -23.4558
-0.0457213 7.51951 -40.5369
-0.297449 7.42982 -40.4085
1.33494 7.25926 -40.0637
13.3504 5.36015 -28.5049
-1.30826 7.18456 -39.9057
13.4062 5.22868 -28.5157
-0.6074 7.03494 -39.9678
-0.606139 7.03973 -39.9569
-0.757212 6.99019 -39.8696
12.8207 5.26231 -30.0051
12.8104 5.25959 -29.9927
13.1695 5.06511 -29.2794
2.25403 4.30522 -25.229
12.9557 5.07521 -29.8274
15.2634 4.00947 -23.7995
13.1988 4.82119 -29.4267
14.8552 3.98351 -24.3549
-9.14476 5.89891 -37.7732
14.049 4.29891 -26.9253
-1.55273 5.90208 -38.4379
-1.55285 5.90842 -38.4719
14.0715 4.17804 -26.7213
-2.7213 5.79868 -38.6052
-3.19723 5.73781 -38.3634
3.26737 3.75623 -24.8082
11.56 5.76515 -39.027
12.1898 4.83395 -32.4137
14.9377 3.79025 -24.839
14.9494 3.78797 -24.8444
-6.63257 5.47507 -37.6678
15.5633 3.58021 -23.7644
14.9157 3.6969 -24.7461
14.2854 3.9289 -26.492
-3.29371 5.39417 -37.7773
-3.2869 5.38855 -37.7859
14.142 4.00556 -27.3784
13.7971 4.08887 -28.3088
13.5482 4.1501 -29.0536
3.60703 3.66579 -25.5432
-5.07428 5.17974 -37.5064
-3.41287 5.15971 -37.5669
-3.62326 5.07316 -37.3689
14.1544 3.81903 -27.5524
14.4303 3.73652 -26.898
-3.43803 4.99126 -37.4036
-3.45065 4.99514 -37.368
-6.17263 4.93343 -36.8883
14.1352 3.78208 -27.7194
-7.79648 4.831 -36.8215
15.1922 3.33266 -24.7407
14.2253 3.65705 -27.4243
14.9611 3.3743 -25.2838
13.7545 3.80146 -28.6542
14.5411 3.54303 -26.6922
-5.96614 4.69319 -36.9788
-0.368528 3.13904 -24.1371
-0.351861 3.22475 -24.5039
14.2895 3.57767 -27.4937
-3.46674 4.66 -37.0266
-3.47257 4.66764 -37.0443
14.5587 3.46263 -26.7946
-0.166142 3.08926 -23.9012
14.7176 3.42041 -26.4332
-12.7213 4.60525 -36.5986
14.393 3.4606 -27.0761
15.0698 3.32055 -25.9047
13.9785 3.55872 -28.2822
14.3458 3.43855 -27.4316
14.3458 3.43855 -27.4316
14.5209 3.3465 -26.8445
-5.99832 4.39629 -36.3298
-6.22363 4.40893 -36.6296
-0.658702 2.93913 -24.0988
14.7425 3.19687 -26.6449
14.6078 3.18638 -26.5042
14.3408 3.29241 -27.5402
14.3347 3.28903 -27.5382
15.5554 2.93311 -24.3529
14.8194 3.10262 -26.0873
-12.7115 4.26439 -36.4012
14.714 3.1363 -26.6799
15.0142 2.95054 -25.4175
15.0142 2.95054 -25.4175
14.6823 3.10061 -26.7723
14.6823 3.10061 -26.7723
-7.50228 3.98936 -35.4694
14.1611 3.24202 -28.1203
-6.26329 4.08917 -36.3172
14.649 3.06733 -26.8959
15.5763 2.72362 -24.0889
14.2174 3.13009 -27.9634
15.2637 2.79691 -25.0754
15.2766 2.77281 -24.7999
15.0687 2.79402 -25.2768
14.8507 2.92323 -26.4359
-1.07849 2.6646 -24.2088
13.5044 3.26495 -29.9506
14.5816 2.72636 -24.8256
13.4817 3.17477 -30.0316
13.4851 3.17686 -30.0405
14.9773 2.80492 -26.2643
14.8218 2.77376 -26.1348
15.0008 2.72322 -25.7849
0.850187 2.45025 -23.1277
4.4717 2.48093 -23.7827
14.8424 2.77601 -26.6573
14.821 2.72912 -26.3941
15.1228 2.68428 -26.0289
14.4214 2.851 -27.7191
15.487 2.47498 -24.1494
14.9009 2.59174 -26.0285
-0.622958 2.29648 -23.6017
13.9219 2.822 -29.4134
14.8425 2.5996 -26.8241
15.4105 2.39319 -24.9585
15.1093 2.33371 -24.462
14.3699 2.61045 -27.5194
15.1684 2.45714 -26.1213
15.1684 2.45714 -26.1213
14.5914 2.52606 -27.3116
-0.71906 2.18357 -23.5778
-1.57125 2.23145 -24.5334
14.7723 2.39906 -27.0664
14.7701 2.3991 -27.0632
12.7538 2.92669 -33.8112
12.462 2.87939 -33.3223
-7.05494 3.0223 -35.2076
15.0524 2.30497 -26.5778
15.0524 2.30497 -26.5778
12.3563 2.80498 -33.5752
13.6592 2.54002 -30.2642
15.0544 2.15654 -26.627
15.0102 2.14711 -26.5863
-1.13044 1.9473 -23.8231
-0.993251 1.91663 -23.6967
-0.657916 1.87784 -23.3677
-11.7226 2.69798 -34.8003
15.7705 1.77696 -24.3523
12.9808 2.32815 -32.3572
14.6333 1.89992 -26.1175
1.97349 1.67948 -22.5797
-11.6552 2.46095 -34.5208
15.1395 1.89354 -26.6918
15.3272 1.80775 -25.95
12.189 2.34728 -34.7608
15.1885 1.77388 -26.5853
15.2043 1.69132 -25.8929
15.2888 1.68891 -26.1779
-3.6107 1.7113 -26.6258
-1.26811 1.53552 -23.7378
14.6008 1.75856 -28.1238
-12.2004 2.09976 -33.8838
13.619 2.00751 -33.3473
14.577 1.72227 -28.2865
15.5864 1.54292 -25.3026
12.3935 2.05992 -34.3428
-11.9636 2.07286 -34.0694
-1.98174 1.5261 -24.7361
3.04741 1.39131 -22.5621
15.3025 1.53009 -26.2998
15.3218 1.46486 -25.8541
15.7794 1.37912 -24.803
15.8422 1.39361 -24.8488
14.3594 1.60421 -29.211
15.1103 1.51176 -27.0822
15.2198 1.43673 -26.0574
-15.1924 1.84797 -33.4372
-15.1577 1.8205 -33.3655
12.123 1.84921 -34.7829
14.4998 1.51684 -28.7622
15.55 1.35104 -25.6084
-4.09302 1.40509 -26.3995
14.7042 1.4433 -28.0251
13.4653 1.59745 -31.7013
13.4653 1.59745 -31.7013
-2.51504 1.29853 -25.2141
3.47489 1.14279 -22.6305
15.6208 1.23507 -25.6692
12.5542 1.55668 -34.488
-21.7463 1.59369 -35.0363
15.4997 1.13683 -25.816
1.71169 1.0365 -22.2599
1.73933 1.05176 -22.3674
15.6727 1.06193 -25.137
15.5957 1.08958 -25.4624
13.1343 1.36998 -32.9551
15.5688 1.05626 -25.7376
13.6198 1.28151 -32.3102
14.3682 1.15097 -29.5885
3.44232 0.894456 -22.6733
14.863 0.97531 -28.1786
-2.67326 0.862525 -24.6739
14.1374 0.98635 -30.3803
15.7526 0.798534 -25.4197
14.1125 0.903291 -30.6628
14.3403 0.883616 -29.8516
14.3433 0.883709 -29.8556
15.9381 0.6621 -25.0034
13.5224 0.884082 -34.7313
13.5224 0.884082 -34.7313
14.3651 0.800263 -29.8438
-8.95634 0.920132 -32.7452
14.5108 0.69276 -29.552
14.5108 0.69274 -29.5519
14.0715 0.709396 -30.9252
0.369729 0.577601 -22.4456
16.0287 0.541488 -24.8664
-0.382119 0.550673 -22.8009
15.9888 0.525268 -24.9662
13.6291 0.656937 -32.1638
14.8464 0.526612 -28.4179
15.99 0.474034 -25.0704
-13.5888 0.711255 -32.7717
15.9366 0.456383 -25.2616
-13.5811 0.637244 -32.3685
0.328612 0.460643 -22.434
-2.2591 0.478297 -24.277
14.7299 0.462299 -28.9264
14.739 0.462689 -28.9237
15.3089 0.401479 -23.9851
13.7094 0.537023 -32.0541
13.2257 0.47694 -33.4993
-6.53316 0.486834 -32.4816
3.48562 0.319158 -22.4857
-0.905164 0.311976 -23.1065
-9.41619 0.389061 -32.3522
14.9299 0.226155 -28.7019
13.3449 0.194403 -33.124
-9.03406 0.195226 -31.9706
4.48126 0.167578 -22.9623
-1.41001 0.107768 -23.6367
14.6387 0.0126157 -29.784
14.8892 0.00979254 -28.9161
14.8892 0.00979254 -28.9161
14.6854 -0.0196709 -29.6181
2.17725 0.0428612 -22.1282
-9.03625 0.0289605 -31.8501
-9.02694 0.0322056 -31.8063
14.4705 -0.029813 -30.2954
-2.47795 -0.0402387 -24.1367
-11.3312 -0.116224 -31.7243
-0.0898937 -0.0952065 -22.6002
-2.98037 -0.158422 -24.0998
-8.10163 -0.310226 -31.592
-2.89542 -0.2337 -24.4957
-11.1107 -0.325549 -31.2661
4.49707 -0.252405 -23.1558
14.877 -0.519588 -29.4228
15.1219 -0.533241 -28.6507
2.42586 -0.354772 -22.2886
-10.4072 -0.673201 -31.2816
15.0882 -0.818467 -29.2491
15.5171 -0.712679 -24.6054
1.3624 -0.602293 -22.2324
-10.658 -0.922891 -30.8469
3.61554 -0.663554 -22.6249
1.5914 -0.653524 -22.2584
-1.82408 -0.679719 -23.1554
3.67637 -0.701216 -22.6103
15.024 -1.05413 -29.749
14.9916 -1.05037 -29.6886
0.682241 -0.853924 -22.435
6.77383 -0.972189 -24.3162
0.194717 -0.89664 -22.6153
0.193712 -0.896511 -22.606
-1.00926 -0.935951 -22.8706
-1.00926 -0.935951 -22.8706
14.9864 -1.33243 -29.8106
12.0483 -1.45849 -31.5172
-0.994102 -1.01302 -22.5822
15.4234 -1.40937 -28.7755
15.323 -1.46571 -28.8324
15.3275 -1.46536 -28.8404
14.9949 -1.52248 -29.6611
12.5889 -1.63028 -31.355
-2.01225 -1.18224 -23.4643
11.9867 -1.66333 -31.498
4.55693 -1.29842 -22.8594
14.7893 -1.8543 -31.1878
-1.85452 -1.33787 -22.9646
15.2159 -1.8195 -28.8717
-7.47135 -1.82338 -30.0372
0.620209 -1.42155 -22.5197
11.9939 -2.0563 -30.8089
11.9238 -2.04423 -30.6915
-2.29174 -1.57507 -23.1414
12.162 -2.20284 -30.8133
12.162 -2.20284 -30.8133
15.679 -2.11488 -28.4745
15.7999 -2.11229 -28.5796
0.646674 -1.67635 -22.1727
-2.58737 -1.83536 -23.1834
4.09047 -1.82327 -22.7475
16.2559 -2.31927 -26.9291
-0.678837 -1.94256 -22.6762
-0.678837 -1.94256 -22.6762
-1.91376 -2.01367 -22.6903
-2.87589 -2.1444 -23.7196
16.4273 -2.64306 -26.8377
16.4394 -2.64877 -25.8557
5.59759 -2.22967 -22.9969
5.76877 -2.23868 -22.8357
-0.383614 -2.18825 -22.4818
-0.80707 -2.23259 -22.3763
-0.038667 -2.26409 -22.4341
13.9428 -3.18602 -29.5345
4.232 -2.42353 -22.6099
16.3635 -3.0559 -27.1995
15.7876 -2.92666 -26.3813
-0.84026 -2.38661 -22.2885
16.723 -3.10725 -26.3303
15.96 -2.92528 -25.1529
0.129686 -2.55999 -22.1724
-1.93611 -2.77298 -23.2743
4.71501 -2.69347 -22.3126
2.9747 -2.70012 -22.2303
-1.22272 -2.74703 -21.9212
0.911254 -2.83843 -21.9373
0.907148 -2.84309 -21.924
13.5078 -3.90626 -28.6192
-10.0784 -3.72045 -27.9739
-7.06126 -3.65294 -27.056
3.79428 -2.98209 -21.9172
-6.86494 -3.71757 -26.9156
0.0663845 -3.14709 -22.0489
3.49891 -3.15055 -21.7351
3.50336 -3.15732 -21.7493
-9.99806 -3.93695 -27.4326
-6.89638 -3.93277 -27.6214
-7.1249 -3.91905 -26.8016
1.84792 -3.21414 -21.7106
11.4793 -4.27055 -28.3357
-0.234461 -3.4123 -22.4665
-2.04403 -3.74126 -24.1143
2.16725 -3.61422 -22.0997
5.45021 -4.08526 -24.261
-6.37211 -4.5071 -27.2072
-2.04684 -4.05706 -24.3165
12.5614 -4.76522 -27.708
4.54258 -4.22153 -23.6122
2.9375 -4.18045 -22.7525
-5.38067 -4.83214 -26.2364
14.6482 -5.08071 -26.5517
2.35106 -4.76699 -23.0608
2.4363 -4.80293 -23.1529
2.42932 -4.79922 -23.1241
2.31253 -4.89496 -23.2083
2.3078 -4.88811 -23.1746
-1.16534 -5.05382 -24.0026
3.14271 -5.00653 -23.5157
3.18865 -5.24916 -23.7209
0.604247 -5.28701 -23.7493
13.3364 -6.5853 -25.318
-0.735192 -5.90384 -23.4681
8.95331 -6.67103 -25.6753
8.59417 -6.76325 -25.5471
8.6017 -6.76745 -25.5677
8.69766 -6.77369 -25.5717
11.3783 -6.87626 -25.2374
-5.2137 -6.72295 -24.9415
-0.80577 -6.60853 -24.1332
11.207 -7.12088 -25.3329
7.91877 -7.04731 -25.2598
13.9291 -6.85308 -24.3511
-3.05109 -6.86142 -24.456
9.94051 -7.21772 -25.0709
8.26222 -7.26571 -24.9468
11.3557 -7.30757 -24.7097
1.04617 -6.99736 -23.6717
14.3997 -7.19384 -23.6882
7.67152 -7.52442 -24.4999
13.033 -7.35079 -23.8019
9.59911 -8.24243 -23.8917
7.5198 -8.23232 -23.7923
-3.57743 -8.05895 -23.4947
6.53591 -8.36041 -23.5855
1.62011 -8.42622 -23.3677
-5.85109 -8.44553 -23.254
-0.424803 -8.539 -22.9663
11.9751 -8.51545 -22.603
-0.204613 -8.63726 -23.0654
-1.67498 -8.65398 -22.9673
-0.0989941 -8.74177 -22.9495
-15.2353 -9.69929 -25.7462
8.30557 -8.95588 -22.9247
-0.742403 -8.80496 -22.8551
9.39627 -8.86736 -22.5537
-0.777997 -8.90522 -22.7377
1.12161 -9.1298 -22.5122
6.19343 -9.16808 -22.5681
-5.36769 -9.11672 -22.4972
0.360624 -9.14617 -22.5295
0.365124 -9.13357 -22.5189
13.2333 14.3918 -30.946
-8.60778 16.2601 -35.7281
-6.57016 16.6509 -36.862
13.1174 21.4261 -47.8248
-11.711 15.4962 -34.0429
-11.7084 15.4604 -33.9863
2.61076 18.7795 -42.1747
13.2302 13.9662 -30.5788
11.1283 20.8241 -47.2292
-14.7799 15.0687 -33.2404
-14.6615 14.7874 -32.6737
-10.6445 15.5096 -34.7804
-4.85419 16.728 -38.1387
0.175826 17.9601 -41.2058
7.66133 19.817 -45.6196
7.66133 19.817 -45.6196
-12.5165 15.0029 -33.7759
14.5584 21.2323 -48.9407
-9.3569 15.539 -35.5701
15.7398 21.489 -49.7148
13.138 13.9346 -31.5775
-11.5362 14.9779 -34.771
-14.2128 14.6048 -33.4834
8.74179 19.6613 -46.4391
12.4762 14.3008 -32.9975
6.77719 19.1249 -45.11
13.6688 13.3323 -30.4758
-8.55091 15.4618 -36.3753
-8.57213 15.5023 -36.4416
6.75815 18.8852 -45.338
-11.7333 14.7512 -34.6728
-3.42235 16.5515 -39.6164
-3.42583 16.5274 -39.5759
12.3557 10.8896 -25.1375
12.3157 11.3518 -26.1711
8.50692 19.3857 -46.8079
12.6413 10.8977 -25.1831
7.8672 19.0685 -46.3519
-8.93365 15.0513 -36.5965
-8.93839 15.0395 -36.5998
-11.551 14.493 -35.1184
-8.52874 15.0145 -36.8732
-8.52651 15.0281 -36.892
-11.745 14.355 -34.9331
-6.14766 15.5211 -38.4088
0.489284 16.9697 -42.7059
13.0294 9.76573 -23.4927
-8.98122 14.6953 -36.8265
16.7481 20.3801 -51.4729
-0.299257 16.5062 -41.9762
13.0092 13.1431 -32.6431
12.7051 10.2576 -25.0871
13.1882 10.1466 -24.6397
3.29324 17.3275 -44.2953
17.3349 20.5617 -52.8903
-22.4003 17.3112 -43.7913
0.843757 16.5272 -42.9041
13.1084 9.77197 -24.2626
-22.4839 16.9919 -43.3742
12.4011 10.3643 -26.0692
0.25546 16.3203 -42.9139
0.233257 16.187 -42.5049
-2.03289 15.7193 -41.5697
3.65806 16.9153 -44.661
13.5168 8.98951 -22.6463
-8.68043 14.3193 -37.6081
-1.15068 15.8596 -42.1312
-1.14025 15.8673 -42.1522
6.41163 17.4923 -46.5555
12.503 13.0849 -34.1247
12.4999 13.1129 -34.1371
12.8851 10.0502 -25.4809
12.8118 12.8282 -33.5132
12.8118 12.8282 -33.5132
-3.21287 15.2659 -40.8491
-1.89831 15.5518 -41.8184
13.5234 9.12766 -23.3581
-14.422 13.057 -34.2655
8.04356 17.5657 -47.6137
-9.88395 13.8177 -36.9228
-9.88395 13.8177 -36.9228
6.63144 17.2544 -46.8101
0.0450819 15.8332 -42.9829
-3.09312 15.1191 -41.1362
-11.4258 13.4425 -36.0877
-5.65991 14.5625 -39.6103
-3.36317 15.0105 -41.0234
-3.35857 15.0321 -41.0534
-3.35798 15.0351 -41.1103
-13.8276 12.7314 -34.404
-2.93549 14.9789 -41.4625
0.173911 15.5589 -43.242
-6.72783 14.145 -39.0994
-13.9179 12.881 -35.0371
13.5971 8.87638 -23.5658
12.4571 12.683 -34.6219
-1.75631 14.7295 -41.4614
0.173387 15.3223 -43.5461
13.676 8.70946 -23.4714
14.0277 8.35575 -22.5546
14.1124 8.14042 -21.9187
-23.8962 17.0035 -47.5986
12.5398 12.351 -34.6701
12.5496 12.3643 -34.6873
12.8464 12.1191 -33.9689
-0.2514 15.0619 -43.458
0.139937 15.1168 -43.6287
-9.07811 13.2377 -38.2577
-6.13551 13.7717 -40.0227
-6.28319 13.7132 -40.3606
-6.82957 13.4843 -39.7219
-9.06601 12.8802 -38.4676
-11.5437 12.3727 -36.9888
-6.84711 13.2141 -39.9622
-12.1399 12.1832 -36.5141
-7.42686 13.0488 -39.621
-3.71652 13.7829 -41.9934
-11.0684 12.3418 -37.3738
-11.0684 12.3418 -37.3738
-7.16841 13.0302 -39.6846
-7.1403 13.0789 -39.7708
-10.1318 12.5109 -38.0532
12.9289 8.94078 -26.5006
-8.551 12.5398 -38.8283
-7.34584 12.6374 -39.8416
12.3686 9.10327 -27.8685
12.2954 9.11013 -27.9937
-3.36864 13.2505 -42.7193
-9.08655 12.161 -39.1709
-9.0636 12.1591 -39.1916
-9.17138 12.0268 -39.2781
-9.17049 12.0289 -39.2857
0.387151 13.6781 -45.3942
0.380733 13.6818 -45.392
-14.7913 11.12 -35.9
-9.42766 11.9112 -39.1216
13.1775 10.5486 -34.364
-13.4168 11.1906 -36.7241
-13.404 11.1831 -36.7005
13.4048 10.2155 -34.001
-6.75202 11.9954 -41.237
13.5171 10.0552 -33.8529
13.1242 7.992 -26.7023
13.6388 9.873 -33.6537
13.4463 9.96109 -34.0949
-12.7927 10.7039 -37.1735
12.6883 10.332 -35.9624
14.3522 6.89403 -23.1979
-24.3003 13.7507 -47.9217
13.5901 9.75673 -34.0062
13.5709 9.74561 -33.9834
13.0929 7.8462 -26.9403
-15.2804 10.2126 -36.1718
-15.3024 10.2212 -36.2288
-11.8033 10.7122 -38.4695
-10.5339 10.8778 -39.2307
14.1423 7.12808 -24.5742
-15.109 10.2071 -36.4756
14.5229 6.81455 -23.7453
14.5331 6.82128 -23.7641
14.6178 6.57214 -23.0348
12.4041 12.3132 -46.639
-10.3115 10.4276 -39.6456
-5.66248 11.0418 -43.0748
-15.1184 9.61602 -36.8061
-14.0786 9.76822 -37.6442
-13.3522 9.91774 -38.9391
-13.0901 9.91746 -38.9364
-22.0801 11.4735 -45.0952
12.6936 7.26548 -28.5487
12.6884 7.26315 -28.5433
13.243 6.90558 -27.1003
14.2994 6.39651 -24.9176
12.7209 7.137 -28.5791
14.1464 6.24641 -24.6672
0.640897 10.3709 -43.3524
14.7317 5.83789 -23.1916
15.0344 5.9073 -23.2903
2.29781 10.0307 -43.0357
13.5982 6.51412 -26.6568
1.90293 10.1513 -43.6545
12.6286 6.97912 -29.0454
-15.676 8.7597 -37.4551
2.22445 9.6226 -42.5803
-7.72008 9.47515 -41.7501
12.4926 6.88914 -29.5756
2.0912 9.36655 -42.0968
2.37106 9.48311 -42.4294
2.35759 9.43768 -42.3083
14.2841 5.95099 -25.3229
-6.46139 9.46896 -42.3521
-0.379973 9.34764 -42.2702
-0.456944 9.29054 -42.163
2.54456 9.31541 -42.3111
-1.12725 9.34542 -42.3888
-20.876 9.53102 -42.5773
-14.888 8.44368 -38.2231
9.48118 9.24658 -43.2566
-5.8139 8.81024 -41.5034
-15.4678 8.00113 -37.9273
-20.4822 8.90775 -41.9455
14.9098 5.10333 -23.4575
-15.2753 7.90791 -37.8473
13.2784 5.98946 -28.2329
15.2708 5.01482 -23.3356
-0.528192 8.28196 -41.0011
6.72764 8.33041 -41.3572
-15.6474 7.71303 -38.2669
15.068 4.91658 -23.8339
15.1765 4.87193 -23.6125
-2.38571 8.16692 -41.8105
14.9635 4.83178 -23.6167
14.9603 4.83288 -23.6182
14.9787 4.74963 -23.7188
15.1261 4.72321 -23.5595
14.9463 4.6894 -23.6761
14.9463 4.6894 -23.6761
-9.83745 7.19218 -38.64
12.275 5.7208 -30.8832
13.0666 5.50697 -29.4261
14.1237 5.01559 -26.5917
14.8299 4.53892 -24.0016
15.1486 4.51787 -23.9871
-0.677305 6.776 -39.4432
12.9733 5.19799 -29.7763
13.0295 5.0935 -29.6823
14.1837 4.50083 -26.5651
13.0342 4.8813 -29.7984
-1.78145 6.11448 -38.6855
14.2542 4.37125 -26.6008
14.2932 4.38448 -26.6335
1.19765 3.98636 -24.982
15.0028 3.88776 -24.4527
15.0376 3.88815 -24.4848
-9.17018 5.80115 -38.0008
13.9358 4.3272 -27.6493
13.9493 4.32511 -27.6556
-6.93808 5.60278 -37.996
14.2611 4.05222 -26.6847
-3.16502 5.51318 -37.9397
-15.0694 5.32873 -36.5015
-7.65566 5.3837 -37.466
13.158 4.50894 -30.2772
-7.0358 5.40693 -38.338
-6.15959 5.07084 -36.743
-7.37748 4.97603 -36.5215
15.0805 3.46616 -24.5174
13.5078 3.96917 -29.3341
-23.0556 5.22268 -38.1187
-0.959776 3.26799 -24.8135
13.9821 3.71072 -28.3386
-4.4285 4.64838 -36.8831
14.1956 3.59363 -27.6764
14.1962 3.59368 -27.6773
-12.0491 4.51598 -35.7192
-8.32097 4.60522 -36.7495
14.2226 3.50468 -27.5678
14.4839 3.41288 -27.0202
14.4893 3.41473 -27.0304
14.7496 3.18874 -25.7126
14.362 3.29677 -27.3606
14.6141 3.227 -26.5082
14.5644 3.20038 -26.7138
-1.74627 3.21972 -27.2081
14.2329 3.15151 -27.816
14.2329 3.15151 -27.816
-1.95609 3.0225 -27.0561
15.2804 2.76258 -24.9593
15.2703 2.76539 -24.9556
15.2703 2.76539 -24.9556
14.3669 2.97689 -27.4446
14.3105 2.98886 -27.8534
14.8541 2.84684 -26.5669
14.8567 2.84658 -26.5668
0.404773 2.45228 -23.1203
13.6747 3.08333 -29.9751
-1.95142 2.81322 -27.0069
13.0778 3.1657 -31.2221
13.1526 3.17583 -31.3936
14.787 2.74353 -26.8032
15.0275 2.68144 -26.2396
15.1867 2.61116 -25.5986
4.35505 2.33597 -23.628
15.1242 2.52035 -26.2478
14.4198 2.63107 -27.9583
-7.43118 3.27355 -35.459
14.8075 2.53895 -26.9414
14.8091 2.53906 -26.9438
-7.37975 3.11263 -35.2061
12.758 2.85177 -32.5114
14.7358 2.40267 -27.2317
15.0879 2.3235 -26.4395
12.8698 2.71833 -32.3728
-6.8124 2.94171 -35.1205
1.07153 1.93368 -22.5884
14.1884 2.37236 -28.8103
14.7885 2.24548 -27.0303
12.6807 2.66419 -33.1263
14.2533 2.26392 -28.7042
14.2557 2.26314 -28.7058
0.225345 1.7106 -22.74
-7.47897 2.3139 -34.4182
14.1936 1.96333 -29.1606
14.2722 1.97764 -29.3099
-12.1981 2.29804 -34.2647
14.5533 1.8743 -28.2955
1.62846 1.49811 -22.3253
14.4562 1.78253 -28.6559
2.11497 1.42647 -22.3349
15.3913 1.56417 -25.6253
-11.3325 2.0499 -33.9153
14.3269 1.75757 -29.0739
14.657 1.61825 -28.2171
15.5289 1.33064 -25.7535
14.2722 1.49635 -29.5223
15.6629 1.27074 -25.3471
14.8177 1.33777 -27.6874
14.2089 1.3992 -29.7757
13.2268 1.54027 -35.5229
15.0163 1.18779 -27.5394
15.0163 1.18779 -27.5394
-19.8826 1.49245 -34.3558
-7.66808 1.45127 -33.3483
-1.47442 1.04043 -23.8508
3.23238 0.956659 -22.4743
14.6517 1.09228 -28.6638
15.6704 0.987988 -25.6927
14.9789 1.01574 -27.4702
11.9782 1.21952 -35.2155
13.4129 1.10098 -33.3666
13.7184 1.0413 -31.5863
14.6197 0.952877 -28.8909
14.6197 0.952877 -28.8909
4.41862 0.820682 -22.9738
15.0775 0.883734 -27.6209
-8.70995 1.07337 -32.9237
14.8198 0.877614 -28.4299
-10.029 1.05765 -33.0438
-10.3944 0.980189 -32.9474
-1.95659 0.753662 -24.4158
-8.27832 0.898938 -32.302
4.86085 0.707174 -23.5063
14.7178 0.768612 -28.6909
14.7178 0.768612 -28.6909
15.8481 0.692738 -25.382
15.8625 0.691756 -25.3994
14.1736 0.814349 -30.4003
14.1828 0.81529 -30.4106
15.1402 0.747684 -27.7089
15.1334 0.748787 -27.6994
15.1386 0.748993 -27.7076
-10.244 0.893673 -32.8573
12.4912 0.869605 -33.9279
-10.3738 0.802764 -32.3481
14.3064 0.723179 -30.1822
14.2666 0.719786 -30.1164
-11.3319 0.825319 -32.8207
15.8055 0.548025 -25.3572
-9.80756 0.744715 -32.6451
13.5109 0.615253 -32.7609
-8.20866 0.493859 -31.9195
14.2332 0.45094 -30.9173
16.0612 0.316145 -24.9158
-8.19977 0.392087 -31.4694
13.8705 0.293691 -31.6894
14.1269 0.290203 -32.1662
14.9765 0.251161 -28.528
15.2171 0.23642 -27.8603
14.1231 0.281401 -31.0654
-11.903 0.293013 -31.9436
14.7522 0.182103 -29.3607
15.0049 0.00521403 -28.6606
14.9969 0.00610022 -28.655
15.0158 0.0107887 -28.6731
14.5602 0.00399619 -29.94
2.79009 0.0430797 -22.3294
5.89318 -0.0299492 -24.2656
4.44906 -0.0838179 -23.1124
-8.85378 -0.166086 -31.7466
-8.861 -0.167759 -31.7881
-1.17507 -0.109295 -23.3792
-10.3132 -0.197858 -31.6859
-3.57115 -0.180414 -24.4685
-1.50014 -0.214255 -23.5772
3.098 -0.221398 -22.3197
-10.0061 -0.316929 -31.3052
-8.78009 -0.29714 -31.6182
15.1114 -0.413843 -28.6691
15.1314 -0.410919 -28.7022
-10.4491 -0.37254 -31.6055
4.57524 -0.452283 -23.1944
-8.07416 -0.722958 -31.045
15.4935 -0.683604 -27.1342
-7.92731 -0.726192 -31.0488
-3.48266 -0.537724 -24.1486
-3.47865 -0.53726 -24.1622
1.64362 -0.519811 -22.1903
1.64449 -0.521394 -22.1957
15.0513 -0.77915 -29.8305
14.7367 -0.86094 -30.1692
15.9912 -0.852276 -26.4597
-10.9688 -1.12008 -30.8371
14.9766 -1.29024 -29.8671
-9.28821 -1.57656 -30.3217
4.7697 -1.2706 -22.8891
12.1851 -1.8911 -31.594
15.7965 -1.76405 -28.1316
-0.911858 -1.44183 -22.6964
-9.47122 -1.90575 -28.8631
15.0785 -2.15381 -30.3146
-9.17129 -1.98582 -29.7692
15.9157 -2.27024 -27.4544
15.902 -2.23287 -27.4616
1.77073 -1.76596 -22.1952
3.00556 -1.83137 -22.3273
2.11769 -1.82926 -22.1401
-3.79422 -2.19512 -26.174
0.537942 -1.89579 -22.193
4.39047 -1.96278 -22.8045
16.3538 -2.41926 -26.8242
2.37417 -1.98046 -22.1804
15.5158 -2.52569 -27.0767
16.4811 -2.48497 -25.7005
15.4865 -2.91988 -29.6885
-0.731031 -2.13709 -22.5043
-9.45809 -2.83755 -28.903
-0.713555 -2.32209 -22.3296
16.5076 -2.94594 -26.8384
4.04285 -2.47734 -22.7424
-9.87168 -3.11148 -28.3785
-1.23357 -2.54192 -22.1548
-2.88209 -2.84118 -24.4124
-0.659061 -2.6576 -22.0156
4.61042 -2.73759 -22.3089
-1.24048 -2.66599 -21.9863
-1.24029 -2.6677 -21.9878
16.6824 -3.41587 -26.7088
-9.39265 -3.41087 -27.3352
4.31771 -2.81121 -22.2033
16.0868 -3.74172 -28.5209
16.8063 -3.70854 -26.7149
-0.335238 -3.11292 -22.0598
2.28404 -3.13716 -21.7585
3.32606 -3.18625 -21.8202
2.04621 -3.34611 -21.86
4.28223 -4.05477 -23.2659
-0.706175 -4.16803 -23.4424
0.391684 -4.41454 -23.1095
4.86439 -4.78683 -24.3226
5.41716 -5.00903 -24.5183
5.93537 -5.34662 -24.6281
13.5579 -6.01341 -25.4915
6.69377 -6.22206 -25.4191
6.6562 -6.18953 -25.3327
0.545281 -6.22436 -22.9825
8.30023 -7.09096 -25.2133
7.93845 -7.22005 -25.0524
13.3433 -7.12356 -24.0591
-5.25984 -7.15417 -24.4542
12.5967 -7.55704 -23.5899
-4.75502 -7.70865 -23.8751
12.2855 -7.87735 -23.3336
-2.62374 -8.13907 -23.4691
-2.62665 -8.13458 -23.4679
-3.77321 -8.20478 -23.3961
6.8038 -8.43884 -23.5492
-1.9935 -8.50802 -23.1137
-1.40581 -8.58353 -23.0331
-5.82261 -8.66791 -23.1035
2.05406 -8.74436 -23.0492
-0.285258 -8.7049 -22.906
-1.82485 -8.74261 -22.861
2.28325 -8.88197 -22.9706
0.304296 -8.84847 -22.8437
0.803678 -8.8649 -22.8492
-0.688844 -8.88517 -22.8361
1.43382 -8.9533 -22.7606
12.4959 -8.79243 -22.0874
8.19081 -9.08777 -22.4107
13.0732 14.5224 -31.3158
-12.8622 15.3089 -33.2882
8.78202 20.3693 -45.5601
16.4943 22.2274 -49.5951
16.6981 21.9918 -49.3872
6.13369 19.4496 -44.1149
8.54361 20.1174 -45.6396
-23.6833 19.5966 -44.8678
-9.46099 15.7647 -35.5984
13.5548 13.7607 -30.4403
13.5429 13.753 -30.4207
-14.8693 14.7201 -33.1384
-4.35879 16.8704 -38.3799
-4.35879 16.8704 -38.3799
13.3174 21.0576 -48.1389
-4.69054 16.7977 -38.4327
-4.69801 16.7683 -38.3863
0.509694 17.6477 -41.5617
7.21197 19.2222 -45.3433
7.2063 19.2119 -45.318
-10.9692 15.0611 -35.0355
7.69319 19.2045 -45.7543
7.56735 19.1664 -45.8997
7.56735 19.1664 -45.8997
0.0761262 17.3176 -41.631
8.69178 19.0275 -45.7801
8.48523 19.377 -46.7607
13.6734 13.1747 -30.7846
13.5137 13.2553 -31.1079
4.06046 18.1545 -44.0536
5.26659 18.7875 -45.5184
-15.0624 14.0998 -33.2708
-15.1025 14.1829 -33.4555
-15.4087 13.94 -33.4949
16.3725 20.8247 -50.9106
13.6112 12.9824 -30.8357
12.6094 10.846 -25.7025
12.6094 10.846 -25.7025
-3.26187 16.0779 -40.1552
12.688 13.4008 -32.8289
7.85694 18.4738 -46.9398
12.3802 10.8658 -26.4153
12.5453 10.6588 -26.1035
0.23788 16.4571 -42.4138
0.2401 16.4639 -42.4206
-15.378 13.1936 -33.1881
-14.8348 13.4237 -34.1687
0.0653204 16.3061 -42.6614
-23.9194 17.8856 -45.93
-11.2264 13.6615 -36.0402
-19.7682 15.0809 -39.8293
-14.2553 13.113 -34.5623
-15.6361 12.7986 -33.6566
13.5483 9.05666 -23.5031
12.3719 10.0698 -26.419
13.1795 9.36619 -24.5374
0.0010694 15.6135 -43.2111
12.7861 12.472 -33.899
12.7861 12.472 -33.899
15.1983 18.848 -52.7187
-7.24627 13.9711 -38.8937
13.5946 8.75343 -23.6968
-4.65357 14.3327 -40.7124
12.7184 12.309 -34.2157
-7.62922 13.6557 -38.9865
-6.66536 13.7782 -39.5626
-5.52876 13.9989 -40.372
-11.7577 12.7451 -36.5529
-14.1489 12.3529 -35.2323
-15.771 12.2262 -34.9276
-7.14862 13.3725 -39.6203
12.4623 9.27131 -27.2294
-8.8907 12.7394 -38.7819
12.9498 8.73444 -25.8435
-10.5829 12.3477 -37.8815
-6.5781 12.9223 -40.3324
0.420386 14.2441 -44.8019
2.95751 15.507 -49.1084
-9.3745 12.173 -38.9754
-25.4956 15.0044 -49.3598
13.2805 8.20297 -26.1008
-23.6698 14.8233 -48.5898
-4.30811 12.7794 -42.8171
12.1444 11.1815 -36.8008
13.6545 10.2501 -33.658
0.0726449 13.0172 -45.693
-9.08219 11.1803 -40.0004
-9.09593 11.196 -40.0644
6.50462 12.7489 -46.2393
6.80984 13.0093 -47.1825
-24.119 13.2214 -46.8309
-22.2598 13.1278 -46.6139
13.2619 9.77714 -34.6867
-9.76728 10.974 -39.8499
14.2932 6.91003 -24.3091
-5.81908 11.3904 -42.6037
-9.77108 10.7243 -39.8803
13.6176 7.18993 -25.8786
13.2075 9.286 -34.7547
13.2188 9.28831 -34.7828
12.8944 7.5666 -27.7838
13.1125 7.40764 -27.2417
-4.11116 11.3547 -43.8466
6.7331 11.7851 -45.4766
1.55353 11.4594 -44.6558
12.9118 7.32054 -27.9055
-5.46008 10.8866 -43.4145
-14.9171 9.45795 -36.9799
-14.9171 9.45795 -36.9799
-15.5454 9.33474 -37.0297
-12.3642 9.6254 -38.9084
13.3769 8.65365 -34.9119
-11.4742 9.69245 -39.5922
-7.81867 10.1256 -42.3437
-0.45522 10.1563 -42.9961
-0.455557 10.1686 -43.0344
14.2132 6.31441 -25.341
2.42486 10.8565 -45.9288
-14.5915 9.00597 -37.9052
-15.798 8.589 -37.4625
-15.1016 8.6395 -37.9634
-15.4612 8.56588 -38.0774
1.93268 9.11904 -41.9862
12.4898 6.70803 -29.7798
7.03764 8.92365 -42.0696
-21.1604 9.10052 -42.3891
6.10542 8.73984 -41.8663
12.7489 6.29326 -29.3486
13.0207 6.17411 -28.7835
13.0289 6.18143 -28.7951
-21.936 9.00392 -42.3285
12.6186 6.17461 -29.8408
-2.81338 8.01104 -40.597
13.3107 5.72532 -27.8404
-15.3874 7.65998 -38.03
13.354 5.71963 -28.2139
13.483 5.66489 -27.8784
13.7255 5.50041 -27.0811
12.9992 5.83172 -29.2916
12.6746 5.79776 -30.0621
12.6653 5.7924 -30.0599
13.0915 5.61263 -29.0729
-1.20324 7.41053 -40.3509
12.3568 5.79404 -31.3763
-2.73647 7.03019 -39.397
13.7344 5.07122 -27.5961
13.8142 4.98493 -27.3852
-9.90997 6.82439 -38.8227
-9.92566 6.88971 -39.2142
13.045 5.28464 -29.4646
12.778 5.23318 -30.1973
1.39328 4.18061 -25.1459
-9.0614 6.05316 -37.7571
-9.0614 6.05316 -37.7571
13.0015 4.81881 -30.1297
0.956171 3.95849 -24.9102
14.1393 3.88599 -27.0727
14.1526 3.87423 -27.3571
14.1928 3.88408 -27.4255
14.1928 3.88408 -27.4255
3.67489 3.37503 -24.1908
13.6282 3.97212 -28.9965
13.0422 4.08273 -30.6232
14.2395 3.75422 -27.7596
14.4184 3.64938 -27.0264
14.0836 3.72279 -27.8191
0.248756 3.151 -23.72
-23.3352 4.95936 -38.908
-23.3352 4.95936 -38.908
14.3314 3.56286 -27.3021
14.4997 3.52289 -26.8714
-6.19692 4.59412 -36.8716
14.146 3.56431 -27.8305
-7.68942 4.41911 -35.9337
13.7058 3.56819 -29.1451
-6.52326 4.36868 -36.6776
14.1743 3.41415 -27.937
13.5004 3.57225 -29.6655
13.5004 3.57225 -29.6655
14.8562 3.15678 -25.9427
14.2321 3.28861 -27.7097
14.7343 3.1235 -26.5962
14.8108 3.09585 -26.4253
-1.18248 2.84848 -24.535
15.0434 2.95319 -25.3645
15.1378 2.88147 -25.2547
-7.84549 3.95095 -36.0062
0.0180071 2.67397 -23.4602
14.5519 3.0673 -27.1632
13.5853 3.31194 -29.7507
14.7258 3.02233 -26.7591
14.9173 2.94274 -26.2848
13.7716 3.17739 -29.3217
13.7738 3.17554 -29.3228
13.9829 3.1178 -28.9627
14.6591 2.91831 -26.986
14.4888 2.9449 -27.4611
14.7752 2.85867 -26.7159
-2.08172 2.83161 -26.9095
14.5272 2.80953 -27.2731
0.175182 2.3607 -23.1927
14.7246 2.66327 -27.0919
15.1456 2.49743 -26.0503
15.1456 2.49743 -26.0503
14.6944 2.54584 -27.1995
-7.71033 3.22509 -35.4404
15.0007 2.43405 -26.4651
-21.4003 3.11666 -36.3392
-1.58393 2.16953 -24.441
15.0032 2.2599 -26.7126
13.6841 2.50322 -30.7476
15.1805 2.20461 -26.2828
14.7826 2.18506 -27.2807
-7.31254 2.5902 -33.831
3.12469 1.80276 -22.6805
15.112 2.07689 -26.5307
15.6258 1.85527 -25.1287
-0.237693 1.72753 -23.0021
14.5841 2.02213 -28.0396
15.0902 1.90537 -26.7377
15.2757 1.85291 -26.3262
14.337 1.95495 -28.767
2.94978 1.53559 -22.5075
-0.376898 1.54423 -23.1275
1.99238 1.48983 -22.3249
2.00655 1.50198 -22.3599
13.6567 1.96815 -30.7489
15.2956 1.60548 -25.7703
3.2025 1.41577 -22.6075
14.2305 1.73464 -29.3805
15.8122 1.45402 -24.6694
12.6919 1.95783 -33.5063
12.8772 1.98307 -33.8312
13.1792 1.90049 -32.4154
14.4925 1.63574 -28.3536
12.5252 1.87706 -34.264
12.4762 1.86757 -34.1283
-2.51253 1.44466 -25.3693
0.317969 1.26251 -22.5771
14.6919 1.44829 -28.2292
-3.97 1.36611 -26.2241
14.5893 1.34439 -28.5085
14.3631 1.33521 -29.3107
14.3626 1.33622 -29.3106
-2.64875 1.1871 -25.0899
-2.39406 1.16998 -25.1204
0.992774 1.06231 -22.3114
3.35958 1.02432 -22.539
3.35428 1.02188 -22.5257
-10.9587 1.43185 -33.3406
14.7868 1.11561 -28.2833
-3.78879 1.04949 -25.8401
14.528 1.11638 -29.0599
15.9617 0.927032 -24.9039
-1.81133 0.961395 -24.2436
15.5317 0.9538 -26.1205
15.4806 0.949608 -26.0986
-3.362 0.977034 -25.8714
14.9407 0.882728 -28.0636
14.6382 0.689863 -28.9767
-2.49677 0.642435 -24.5571
-11.9095 0.699651 -32.5416
15.0316 0.571898 -28.1451
-9.20807 0.69332 -32.7094
-9.18329 0.690587 -32.573
14.4735 0.590172 -29.7061
14.2487 0.524978 -30.4916
14.8067 0.491498 -28.7835
-8.96947 0.558531 -32.6041
-9.13273 0.511293 -32.5177
14.6244 0.36223 -29.4695
14.7814 0.346447 -29.0783
-1.90572 0.256469 -24.0542
-10.7568 0.339363 -32.2803
14.8801 0.163716 -28.8356
14.8896 0.165372 -28.8536
-9.61849 0.183137 -32.1246
-10.3853 0.163094 -32.1034
14.6765 0.0558433 -29.5751
14.6736 0.0508292 -29.5623
-1.74485 0.055704 -23.9463
-1.0144 0.0261662 -23.2477
16.0295 -0.0471273 -25.2634
0.105805 -0.0268451 -22.5372
-10.8349 -0.11242 -31.4498
14.8195 -0.147151 -29.3799
15.9453 -0.175408 -25.924
14.885 -0.173328 -29.151
14.8692 -0.179267 -29.1362
14.6174 -0.281292 -30.035
2.09785 -0.201185 -22.1541
14.8496 -0.442617 -29.419
14.8442 -0.445556 -29.4134
-11.2703 -0.425312 -31.406
-10.763 -0.442833 -31.3647
2.63645 -0.379073 -22.4242
2.41941 -0.401053 -22.2676
14.7063 -0.588669 -30.0887
15.8842 -0.701544 -26.78
15.3253 -0.659708 -25.9846
-9.61805 -0.678784 -31.2696
2.75164 -0.544004 -22.3883
2.72182 -0.541152 -22.2957
15.1484 -0.828103 -29.0625
14.8949 -0.876337 -29.7497
16.2509 -0.785277 -25.5078
15.9634 -0.823155 -26.1317
-9.80272 -0.981234 -31.0088
-0.379406 -0.757637 -22.8864
-0.286945 -0.859432 -22.8515
-9.41687 -1.22273 -30.6081
2.87665 -0.934456 -22.456
1.08166 -0.934904 -22.3657
-1.64323 -1.06696 -23.0864
-0.822654 -1.10925 -22.6178
15.7239 -1.50981 -28.3826
15.2007 -1.46109 -27.5918
15.1523 -1.65142 -29.5933
16.2734 -1.53771 -26.2224
3.76796 -1.32573 -22.8218
3.57655 -1.39779 -22.8325
3.14674 -1.42617 -22.6831
15.8826 -1.85579 -28.018
2.864 -1.46015 -22.6823
-2.22526 -1.52941 -23.138
1.48311 -1.78427 -22.1262
4.54172 -1.99246 -22.9431
16.3292 -2.37172 -26.2234
15.8349 -2.6705 -28.4396
-9.39543 -2.69982 -28.9751
-9.75397 -3.24348 -28.2767
-8.97041 -3.559 -28.2654
-2.13012 -3.12566 -23.8664
0.794161 -2.93824 -21.8294
-0.632501 -3.01987 -22.2237
1.89405 -2.99302 -21.795
-2.35847 -3.28459 -24.231
1.68863 -3.02426 -21.7857
-9.24311 -3.85779 -27.7345
1.19932 -3.15179 -21.6596
0.898182 -3.18551 -21.5863
1.12147 -3.32427 -21.4536
0.0848336 -3.56331 -22.4462
1.04662 -3.43229 -21.4504
-2.20877 -3.94075 -24.5005
0.149858 -3.72293 -22.5827
-18.3668 -5.27045 -29.2146
12.7592 -5.19885 -27.15
14.9642 -5.41146 -25.9605
14.3045 -5.63885 -25.9649
2.27189 -5.03451 -23.2452
13.9068 -5.90804 -25.5279
13.4425 -6.19755 -25.5227
4.85668 -6.04172 -24.0059
12.4134 -6.52752 -25.2157
-4.23296 -7.17376 -24.362
-3.48415 -7.45878 -24.0575
12.6073 -7.75723 -23.5175
9.81623 -8.0349 -24.0957
7.99933 -7.97691 -23.912
1.80234 -8.25899 -23.4142
1.63773 -8.4132 -23.4046
-2.12363 -8.55315 -23.0864
7.32638 -8.66544 -23.125
-0.266111 -8.59718 -23.1031
-6.01513 -8.59702 -22.9292
11.5336 -8.5343 -22.5824
7.67926 -8.81246 -23.1003
0.408056 -8.75075 -22.9069
0.606328 -8.78508 -22.9426
-0.446949 -8.76783 -22.894
0.87491 -8.78568 -22.8622
1.59703 -8.90347 -22.837
9.01736 -8.90354 -22.6412
0.0838385 -8.89355 -22.7617
0.221097 -9.03086 -22.6636
-4.50433 17.2419 -38.0298
2.14865 18.86 -41.9096
-13.1159 15.2243 -33.1575
9.26427 20.5095 -45.9952
-13.3679 15.0818 -32.941
-11.9471 15.4118 -33.8703
-11.9386 15.4017 -33.8519
-7.09747 16.4727 -36.7094
12.2783 14.9871 -32.9812
-9.60839 15.8637 -35.4812
-9.59202 15.8753 -35.2464
0.115411 18.1274 -40.9838
12.6817 20.8848 -47.8381
13.363 13.8695 -30.9527
4.09728 18.827 -43.3105
12.3972 14.6782 -33.0807
12.7157 14.3689 -32.3679
-13.1918 14.8205 -33.5009
6.41399 19.2728 -44.7581
10.6781 20.1807 -46.9191
0.844402 17.9949 -42.2726
13.1057 13.6978 -31.5473
13.5237 13.4161 -30.9683
-24.0896 19.6291 -45.6966
15.0855 20.7383 -49.829
7.29214 18.9375 -45.8391
-23.2412 18.9083 -44.8108
11.7666 19.6321 -47.7302
12.5773 11.0094 -25.6723
7.35252 18.8367 -46.1656
1.88752 17.1154 -43.3049
-20.738 16.1007 -40.7864
-20.738 16.1007 -40.7864
-4.65275 15.2366 -39.7373
12.362 13.1385 -34.3276
12.3614 13.1373 -34.3343
12.3458 10.3559 -26.6971
12.6545 12.6529 -34.1227
13.6943 11.8418 -32.0198
13.0132 12.1718 -33.6092
-15.7551 12.6372 -34.6082
12.8984 9.5563 -25.86
-2.79176 14.5781 -41.7366
-19.8702 14.4449 -40.6487
-14.7749 12.3459 -34.7916
14.0898 8.22659 -22.6509
14.2092 8.04248 -22.4436
13.2396 8.69555 -25.0652
13.0706 8.72839 -26.2749
13.0634 8.72478 -26.2645
13.2082 8.43969 -25.478
13.2121 8.4428 -25.4864
-8.17235 12.2683 -39.5119
13.3085 8.3781 -25.881
12.7392 8.67606 -27.1259
12.5885 8.74742 -27.5118
12.5885 8.74742 -27.5118
13.0392 8.32534 -26.7435
14.0127 7.48403 -24.0245
-14.1896 10.8129 -36.6243
14.1413 7.39471 -24.483
13.2394 7.81368 -26.5402
-14.9746 10.4057 -36.5402
13.4225 9.53965 -34.4099
14.1566 6.99013 -24.5682
14.7219 6.69364 -23.3036
14.7219 6.69364 -23.3036
13.1704 9.58266 -35.0933
13.1675 7.52416 -26.9616
13.1355 7.50918 -26.9199
1.24777 12.0545 -45.4797
14.5156 6.62527 -23.9911
12.5792 7.66135 -28.688
1.23313 11.3298 -44.4118
12.2571 9.59776 -37.3261
13.1579 7.14621 -27.3279
13.91 6.6736 -25.7097
13.142 6.92421 -27.5431
13.1505 6.93191 -27.5509
12.5398 7.17609 -29.0761
13.1662 6.68068 -27.057
12.8118 6.9907 -29.0075
-11.1592 9.24014 -39.5241
13.6965 6.3749 -26.5541
-4.39779 9.66778 -42.3998
1.57704 8.98965 -42.3094
12.8543 6.36839 -28.991
13.2517 6.15048 -28.0214
-12.5556 8.55136 -40.5957
-11.9568 8.35881 -40.179
-2.14247 7.6639 -40.1619
14.0353 5.19893 -26.6052
-2.34055 7.31089 -39.693
13.2488 5.44117 -28.8714
14.0594 4.93728 -26.7621
14.5946 4.79963 -25.7632
13.9909 4.69995 -27.2656
-15.2794 6.39797 -38.5712
14.3103 4.16711 -24.3832
1.18934 4.0637 -25.0538
-7.94196 5.65476 -36.9537
-7.35644 5.63477 -37.1318
14.058 3.94815 -27.6922
14.9229 3.2604 -25.1828
14.0697 3.56152 -28.0507
14.0697 3.56152 -28.0507
14.8113 3.27328 -26.1558
15.1376 3.02739 -25.0797
14.3835 3.24695 -27.3167
14.482 3.22555 -26.912
15.0442 2.77665 -26.097
15.7011 2.50911 -24.2672
15.3382 2.58126 -24.9916
-12.3813 3.34771 -34.1757
12.7101 2.99181 -32.1332
14.7655 2.42881 -26.8445
14.8795 2.23555 -24.3148
14.8795 2.23555 -24.3148
14.4633 2.39582 -27.9488
15.0596 2.23278 -26.5515
15.0596 2.23278 -26.5515
15.3233 2.07589 -25.7021
15.7 1.8134 -24.4891
-11.3089 2.36165 -34.5153
-10.0833 2.22999 -34.3213
12.9781 2.04961 -32.9365
12.9633 2.04998 -32.917
-11.9586 2.10925 -33.7861
-12.0028 2.10899 -33.9663
-8.62446 2.0312 -33.2573
12.5012 2.08156 -34.1253
-10.7199 1.95959 -33.8628
-12.0353 1.90609 -33.8676
-1.45738 1.27736 -23.8471
-22.4175 1.71202 -35.1196
14.0837 1.18208 -30.3049
-20.2587 1.00273 -34.0207
-0.768185 0.497482 -23.0123
-0.828445 0.339716 -23.1
-0.826372 0.337508 -23.0926
3.01717 0.300586 -22.3196
15.7265 0.26576 -26.1538
2.62882 0.269635 -22.2946
-8.22 0.222574 -31.716
15.9575 0.101806 -25.4882
15.9575 0.101806 -25.4882
-8.56321 0.137355 -32.0482
-3.09273 0.110478 -24.7743
15.15 0.0300349 -27.8504
15.9096 -0.0499176 -25.6998
15.9096 -0.0499176 -25.6998
15.3567 -0.0866381 -27.7943
14.9722 -0.143602 -28.9122
-11.1912 -0.229445 -31.6418
5.36815 -0.329735 -23.8358
-9.41266 -0.698768 -31.3036
-0.109986 -0.545096 -22.7466
-9.70378 -0.850134 -30.7125
5.31735 -0.794463 -23.5057
15.0775 -1.08294 -29.4888
3.84892 -1.15883 -22.7937
4.19178 -1.31041 -22.9252
5.58261 -1.37419 -23.8455
2.36097 -1.34927 -22.4803
16.0421 -1.78459 -26.6062
1.11431 -1.48875 -22.4351
3.2508 -1.57536 -22.4408
15.8358 -2.06119 -27.6269
-0.879949 -1.78472 -22.7581
-4.17384 -2.14442 -26.522
4.41554 -2.06852 -22.8721
15.9614 -2.83569 -28.2472
-9.5914 -2.81583 -28.7609
4.65581 -2.31612 -22.7414
15.7657 -2.833 -26.135
2.98092 -2.36641 -22.3358
1.2422 -3.01523 -21.7062
2.07469 -3.11598 -21.7599
2.06734 -3.10345 -21.7435
0.46484 -4.19996 -22.8713
-0.30068 -4.31356 -23.348
0.470754 -4.63198 -23.243
1.37145 -4.63637 -22.9496
1.61691 -4.79513 -23.1537
11.616 -6.21662 -26.35
14.0145 -6.10183 -25.3342
14.2351 -6.11609 -25.2295
-5.42453 -7.14536 -24.4653
13.5498 -7.16443 -23.8462
8.05272 -7.42073 -24.7833
7.80154 -7.63163 -24.5278
7.52936 -7.71559 -24.3718
12.7564 -7.63329 -23.5709
-3.04364 -7.76612 -23.8257
8.89916 -8.38145 -23.6184
-15.3279 -9.51384 -25.8504
7.56494 -8.90015 -22.9247
11.8711 -8.86181 -22.2649
-12.9654 14.9428 -33.8002
-12.9305 14.888 -33.6029
10.0565 20.0769 -46.9075
12.8763 14.0792 -32.0206
13.2951 13.738 -31.3517
13.9148 20.5745 -49.0852
13.1238 10.2678 -24.5449
12.6444 19.3298 -49.709
12.9723 9.80157 -24.6751
-5.57236 14.9092 -39.3
3.8998 17.7997 -47.4322
13.3196 9.29326 -23.7684
13.2764 9.3235 -24.1361
13.791 8.84081 -22.7101
0.743939 15.9051 -43.0609
12.3934 10.113 -26.8967
13.5017 8.96715 -23.8084
13.2417 9.15852 -24.474
13.2417 9.15852 -24.474
13.238 9.13946 -25.4229
13.3432 8.64203 -24.8291
12.8543 9.06915 -26.6425
12.7003 8.8717 -26.8395
13.2971 10.7172 -33.6356
13.7062 10.2727 -33.289
-18.1282 11.8985 -39.1636
-24.6085 14.1498 -48.2047
14.3669 7.19149 -23.811
-24.6463 13.7288 -47.6861
-24.6463 13.7288 -47.6861
-15.538 10.4247 -35.9377
13.4791 7.50363 -25.7402
14.4025 6.9685 -23.9985
14.5353 6.50915 -23.3894
13.9071 6.62031 -24.6402
13.3926 7.06448 -26.7865
12.8298 7.19946 -28.214
-12.9453 9.44566 -38.3245
-6.20152 10.2234 -42.2858
-6.20152 10.2234 -42.2858
12.9151 6.83794 -28.281
13.0789 6.77011 -28.0189
12.3031 7.17339 -29.7913
13.1918 6.473 -27.8689
13.9905 6.01017 -26.1905
-14.9128 8.09686 -38.0595
1.7405 8.56561 -41.7018
13.1404 4.75066 -29.5556
13.1213 4.74544 -29.5235
13.0413 4.82059 -30.2003
15.1406 3.90801 -24.2667
14.1302 4.13652 -27.502
14.1522 4.07427 -26.9416
-7.39327 5.25305 -36.6077
14.3076 3.92948 -26.8394
15.4079 3.06824 -24.289
13.9252 3.42891 -28.6515
15.2752 2.97719 -24.6848
14.2261 3.04127 -28.1708
15.1769 2.44352 -25.7038
-0.614261 2.10084 -23.4814
-0.614766 2.10066 -23.4798
15.5021 2.1674 -25.0443
15.6967 1.9581 -24.8169
-10.1932 2.38859 -33.998
15.6534 1.55733 -24.8218
14.4394 1.68058 -28.9717
14.447 1.68876 -28.9901
15.4599 1.4589 -25.4206
14.0675 1.5873 -29.9663
-8.76976 1.08168 -32.1761
-3.56337 0.826327 -25.6158
15.4051 0.729514 -26.5742
-10.4001 0.724824 -32.258
-8.74312 0.665217 -32.3182
-10.4039 0.428179 -32.3827
3.01605 0.300939 -22.3155
16.018 0.198583 -25.2507
15.0852 -0.428429 -29.1858
15.039 -0.417433 -29.1207
14.8904 -0.694763 -29.5399
15.3247 -0.784534 -28.1725
15.4139 -0.776008 -28.2543
-10.6343 -0.796223 -30.7977
-9.44666 -1.01111 -30.9317
-9.79565 -1.21771 -30.2547
3.40417 -1.01855 -22.6347
-1.40956 -1.12012 -22.8968
-9.97224 -1.64513 -30.0355
-1.16534 -1.28896 -22.486
-10.3128 -1.71212 -30.1203
15.6608 -1.80018 -28.4523
15.3689 -1.90478 -28.6483
2.59273 -1.51919 -22.552
16.3461 -1.94926 -26.6033
-1.33393 -1.74733 -23.0305
-2.02321 -1.88621 -22.7488
-10.0562 -2.67256 -28.9745
1.70769 -2.08954 -22.1073
1.70769 -2.08954 -22.1073
11.1082 -2.95358 -30.5235
16.4336 -3.29381 -26.3981
2.16893 -2.94648 -21.9295
2.69103 -3.09309 -21.9193
5.11296 -3.52746 -23.3094
-1.74052 -4.16263 -24.1763
5.18673 -4.26512 -24.1259
5.82903 -4.7094 -24.7036
-0.797717 -4.55101 -23.8196
-1.06689 -5.25951 -24.3976
13.4207 -6.13076 -25.8997
13.8032 -6.05518 -25.3657
3.10991 -5.64309 -23.7952
8.68959 -7.24334 -25.1428
7.70008 -7.53036 -24.6249
8.07324 -7.47305 -24.4593
9.49067 -7.61985 -24.4588
9.69187 -7.65535 -24.3165
14.3077 -7.48172 -23.3893
14.3077 -7.48172 -23.3893
12.8723 -7.61818 -23.3759
-3.73178 -7.5463 -23.5044
-2.9514 -7.84977 -23.8774
-2.962 -8.30251 -23.3285
12.7917 -8.95069 -23.2547
-0.201279 -8.82651 -22.9475
-0.201279 -8.82651 -22.9475
6.78668 -8.98787 -22.909
11.696 -8.90585 -22.2788
13.1959 9.67265 -23.6012
13.6271 8.89129 -23.3413
13.7197 11.3104 -32.1652
-14.1578 11.8509 -35.6483
12.6319 9.12967 -27.1574
-15.6756 11.5133 -35.3728
13.7509 10.5096 -33.0325
13.8469 7.69674 -23.8108
-14.3146 11.2182 -36.0219
12.8737 8.54125 -26.889
12.8811 8.5476 -26.9002
-12.8687 10.5212 -37.0577
12.3145 7.39614 -29.3169
14.4993 6.13186 -24.979
13.4643 6.50644 -27.0836
13.3278 6.25153 -27.6803
13.6558 5.76312 -27.137
-2.60352 7.80641 -40.9728
-15.7704 7.31656 -38.7385
13.3802 5.41949 -28.3816
13.3768 5.41621 -28.375
12.5589 5.948 -31.9974
14.6564 4.53704 -25.8914
-5.15248 5.75068 -37.8097
14.6201 4.17854 -26.3652
-7.13325 5.38551 -37.1199
13.3245 4.33061 -29.5045
14.5177 3.9375 -26.5298
15.0597 3.28678 -24.9941
14.6691 2.79434 -27.0352
0.477183 1.81346 -22.6313
13.5763 1.64544 -31.524
-0.174128 1.10506 -22.7816
15.4229 1.20396 -26.157
-20.8319 1.51633 -34.6445
14.1917 1.27121 -30
-8.31479 0.78443 -32.4619
-1.6235 0.369068 -23.8679
-1.6235 0.369068 -23.8679
-8.79452 0.304603 -32.1886
4.59548 -0.758256 -23.366
-9.50053 -1.31453 -30.7632
-3.01057 -1.15114 -23.5017
-9.56235 -1.88705 -28.8122
5.37024 -2.72521 -22.4293
3.24626 -3.05436 -21.795
1.49125 -3.11626 -21.7291
-6.39282 -4.25932 -27.4125
-0.502808 -3.587 -22.7678
-0.0266255 -4.03965 -22.9786
-0.0331465 -4.02514 -22.9188
5.60668 -4.8012 -24.5836
-1.3259 -5.1925 -24.1231
14.0885 -5.76015 -25.6688
-1.03436 -5.55405 -24.06
14.8967 -6.80158 -24.1394
-3.17293 -7.87616 -23.7356
-1.01477 -8.77338 -22.5546
-1.01477 -8.77338 -22.5546
-2.15933 -8.94013 -22.6197
-4.29569 17.0634 -38.3821
-4.29569 17.0634 -38.3821
4.60439 18.8227 -43.9513
15.6217 21.2864 -49.6755
12.2775 11.0052 -25.5945
3.82079 17.3276 -44.0084
2.75693 17.2096 -43.9303
13.1663 9.57409 -24.0077
13.9661 7.82213 -23.4485
13.094 10.4795 -34.3675
13.187 9.55504 -35.4111
15.0132 2.49462 -26.3792
13.8478 2.50543 -29.7531
15.5503 1.65841 -25.2261
-1.01199 1.44333 -23.4919
-1.5788 1.14761 -24.0001
-1.1053 0.602368 -23.3594
4.71331 -0.0070866 -23.2038
3.31973 -0.811868 -22.7474
-1.20653 -3.12374 -22.2826
4.51484 -4.10218 -23.5403
12.0913 -4.86384 -27.7339
1.45057 -6.55598 -24.4089
11.5474 -7.32375 -24.6211
-2.19515 -8.29249 -22.9413
12.1211 20.149 -49.2381
4.94347 17.8248 -44.5191
13.4597 9.1383 -23.7654
13.3091 8.04399 -25.6082
-7.17531 10.5996 -42.3754
13.8874 2.97915 -29.5213
15.2731 1.6206 -26.209
0.0406946 0.399698 -22.4275
-1.06725 -2.52791 -22.1889
1.05216 -3.13636 -21.4433
-0.914443 -3.32828 -22.275
0.766968 -3.39528 -21.6368
0.43636 -4.21203 -22.8959
0.358982 -5.33437 -23.8912
1.01312 -5.75157 -23.9835
1.26852 -6.04655 -23.8805
-4.37807 -7.58381 -23.5721
1.13152 16.8343 -43.3181
1.13288 16.7178 -43.1778
14.4922 3.05352 -27.1717
14.8968 2.80709 -25.603
14.2665 2.65792 -28.4235
15.2193 2.11978 -25.7997
15.1894 2.11473 -25.7816
3.37635 0.166141 -22.4539
-1.78454 -1.57525 -22.8687
0.144016 -2.46392 -22.6802
5.58567 18.9633 -44.5213
2.07085 17.7605 -42.9948
2.0124 17.6732 -42.7674
3.32435 17.9429 -45.0659
3.33003 17.9077 -45.0796
10.9063 19.1126 -50.1103
13.0348 9.74583 -24.6442
14.7665 1.91497 -27.453
3.44349 -0.418847 -22.4223
1.26658 -1.68878 -22.3637
-6.92245 13.6165 -39.1339
-6.89982 13.5918 -39.0852
14.8092 4.35401 -25.8047
14.44 2.36714 -27.222
-3.74005 16.6429 -39.1933
2.58417 19.2366 -41.7153
5.78661 20.5742 -43.0569
-11.5641 13.478 -36.0008
-11.5523 13.4662 -35.9689
-10.3257 13.9954 -36.5468
5.71491 20.49 -43.0454
2.80301 19.2685 -41.866
-8.7022 14.5647 -37.2152
-8.68135 14.5282 -37.1304
-8.68146 14.5201 -37.1241
5.26453 20.2436 -42.9336
5.49493 20.2982 -42.9313
5.50671 20.3154 -42.9853
-3.75601 16.5166 -39.3305
-3.75669 16.5061 -39.2721
-3.75742 16.5176 -39.3326
5.40216 20.2619 -42.9714
5.39982 20.2544 -42.9526
-11.8292 13.2686 -35.9943
-11.5741 13.2285 -35.9767
8.36417 21.242 -44.3747
-13.9331 12.3319 -35.4728
-9.99437 13.7201 -36.995
-9.99437 13.7201 -36.995
-11.7747 12.9464 -36.3297
-4.75822 15.7341 -39.295
-14.2889 11.943 -35.3559
-14.1496 11.8345 -35.0181
-14.2885 11.9472 -35.3778
6.66697 20.337 -43.9821
-11.7384 12.8597 -36.4051
7.81887 20.6445 -44.5141
0.926925 17.781 -41.9175
-6.08266 14.8879 -39.1136
8.08312 20.5844 -44.8171
6.64286 19.9121 -44.2683
-0.0666302 17.2415 -41.7734
-12.2396 12.2594 -36.5033
-12.0666 12.3236 -36.5203
-14.7865 11.3418 -35.4896
-10.4094 12.9134 -37.1939
0.924098 17.5946 -42.2555
8.22132 20.4911 -44.9966
0.676369 17.38 -42.0463
-10.5071 12.909 -37.3623
-2.27462 16.1197 -40.8846
-8.37161 13.6895 -38.4644
-5.25188 14.8645 -39.7208
-13.495 11.6144 -36.2692
-2.58811 15.8412 -40.7783
-13.7776 11.4723 -36.273
-1.50741 16.2741 -41.3502
-2.45676 15.8821 -40.9596
-13.7503 11.34 -36.0332
-10.918 12.3398 -37.0718
-1.91999 16.0649 -41.1979
11.403 21.4009 -46.5259
-14.8731 10.8413 -35.5318
-8.17004 13.5235 -38.7016
-1.49177 16.1664 -41.4271
-12.8216 11.5345 -36.3597
-7.44153 13.7947 -39.0706
-8.0949 13.4767 -38.7553
1.12808 17.2479 -42.764
-10.8517 12.3607 -37.6047
-10.8485 12.3639 -37.6123
-2.67001 15.5625 -41.0233
-9.04553 13.029 -38.3945
-7.42697 13.665 -39.1131
-3.05284 15.3876 -40.9089
0.1232 16.7515 -42.4982
-1.60191 15.9399 -41.587
-8.24944 13.2878 -38.8135
1.18922 17.0581 -42.7161
-7.75647 13.4554 -39.0417
-7.56337 13.5074 -39.1268
-14.0397 11.0598 -36.5594
6.8815 19.234 -45.0022
13.6407 21.8927 -47.6583
-2.79848 15.3134 -41.1673
-12.6924 11.3528 -36.8319
-3.49646 15.0537 -40.9767
7.40328 19.415 -45.3244
-14.2635 10.8997 -36.5626
13.7167 21.8997 -47.8678
-13.0781 11.1879 -36.7012
-1.64652 15.747 -41.738
2.48607 17.3658 -43.3817
-12.6266 11.4469 -37.2403
-12.6266 11.4469 -37.2403
-0.360548 16.2099 -42.3615
-5.52958 14.1299 -40.2484
6.79161 19.055 -45.1798
1.16933 16.7783 -43.0142
9.61789 20.1641 -46.4529
10.4119 20.4066 -46.5579
-9.07203 12.6854 -38.8269
-10.0547 12.2626 -38.3264
10.7855 20.5132 -46.8902
10.7974 20.531 -46.9362
5.7656 18.4821 -44.9379
8.70748 19.6889 -46.1622
12.4133 21.0748 -47.416
-0.0836503 16.2122 -42.8264
-0.243043 16.0539 -42.5995
1.38466 16.6578 -43.1591
9.62832 20.0499 -46.6793
-6.5245 13.602 -40.1638
-7.90016 12.9539 -39.3929
-6.66613 13.4143 -39.9862
-9.36173 12.3282 -38.8288
-9.49751 12.2654 -38.8235
6.36912 18.5735 -45.3969
14.6065 21.7544 -48.61
5.0281 18.048 -44.9227
-6.00124 13.6046 -40.3571
-8.4785 12.5935 -39.3682
-0.461048 15.7426 -42.6857
-7.39026 13.0612 -40.0331
-7.33677 12.9797 -39.7534
2.14036 16.8534 -43.948
2.13374 16.7829 -43.7665
-11.7339 11.1311 -37.4638
14.4803 21.5614 -48.7266
-9.18012 12.2089 -39.0798
-8.16521 12.4577 -39.4468
-0.997983 15.3978 -42.7432
-8.0388 12.4683 -39.4656
-9.26519 12.0509 -39.162
-7.57313 12.6414 -39.6767
-7.50133 12.7119 -39.816
-5.92425 13.5993 -41.6738
11.6151 20.186 -47.7511
-7.51691 12.6701 -40.2583
-7.37648 12.6378 -40.0601
-11.8711 10.8167 -38.0408
-15.0528 9.60143 -37.0691
